48.3404357 4.4784677 21.13 07102020 140952.62 0.00
48.3404357 4.4784677 21.55 07102020 140952.62 0.00
48.3404355 4.4784682 21.11 07102020 140952.72 0.00
48.3404355 4.4784682 21.57 07102020 140952.72 0.00
48.3404337 4.4784736 21.13 07102020 140953.07 0.00
48.3404337 4.4784736 21.52 07102020 140953.07 0.00
48.3404318 4.4784797 21.07 07102020 140953.41 0.00
48.3404318 4.4784797 21.51 07102020 140953.41 0.00
48.3404303 4.4784870 21.07 07102020 140953.75 0.00
48.3404303 4.4784870 21.42 07102020 140953.75 0.00
48.3404294 4.4784946 21.10 07102020 140954.09 0.00
48.3404294 4.4784946 21.38 07102020 140954.09 0.00
48.3404292 4.4785013 21.09 07102020 140954.43 0.00
48.3404292 4.4785013 21.49 07102020 140954.43 0.00
48.3404289 4.4785072 21.13 07102020 140954.77 0.00
48.3404289 4.4785072 21.49 07102020 140954.77 0.00
48.3404280 4.4785138 21.15 07102020 140955.11 0.00
48.3404280 4.4785138 21.50 07102020 140955.11 0.00
48.3404266 4.4785213 21.09 07102020 140955.45 0.00
48.3404266 4.4785213 21.43 07102020 140955.45 0.00
48.3404249 4.4785287 21.13 07102020 140955.80 0.00
48.3404249 4.4785287 21.47 07102020 140955.80 0.00
48.3404232 4.4785345 21.14 07102020 140956.14 0.00
48.3404232 4.4785345 21.49 07102020 140956.14 0.00
48.3404213 4.4785389 21.14 07102020 140956.48 0.00
48.3404213 4.4785389 21.46 07102020 140956.48 0.00
48.3404189 4.4785436 21.14 07102020 140956.82 0.00
48.3404189 4.4785436 21.39 07102020 140956.82 0.00
48.3404163 4.4785497 21.11 07102020 140957.16 0.00
48.3404163 4.4785497 21.54 07102020 140957.16 0.00
48.3404141 4.4785565 21.11 07102020 140957.50 0.00
48.3404141 4.4785565 21.43 07102020 140957.50 0.00
48.3404128 4.4785629 21.13 07102020 140957.84 0.00
48.3404128 4.4785629 21.48 07102020 140957.84 0.00
48.3404124 4.4785690 21.12 07102020 140958.18 0.00
48.3404124 4.4785690 21.33 07102020 140958.18 0.00
48.3404122 4.4785760 21.17 07102020 140958.53 0.00
48.3404122 4.4785760 21.35 07102020 140958.53 0.00
48.3404114 4.4785835 21.11 07102020 140958.87 0.00
48.3404114 4.4785835 21.38 07102020 140958.87 0.00
48.3404103 4.4785910 21.08 07102020 140959.21 0.00
48.3404103 4.4785910 21.37 07102020 140959.21 0.00
48.3404093 4.4785982 21.06 07102020 140959.55 0.00
48.3404093 4.4785982 21.46 07102020 140959.55 0.00
48.3404088 4.4786046 21.06 07102020 140959.89 0.00
48.3404088 4.4786046 21.53 07102020 140959.89 0.00
48.3404082 4.4786103 21.12 07102020 141000.23 0.00
48.3404082 4.4786103 21.50 07102020 141000.23 0.00
48.3404070 4.4786160 21.17 07102020 141000.57 0.00
48.3404070 4.4786160 21.94 07102020 141000.57 0.00
48.3404054 4.4786224 21.05 07102020 141000.91 0.00
48.3404054 4.4786224 21.40 07102020 141000.91 0.00
48.3404043 4.4786290 21.01 07102020 141001.25 0.00
48.3404043 4.4786290 21.40 07102020 141001.25 0.00
48.3404041 4.4786353 21.00 07102020 141001.59 0.00
48.3404041 4.4786353 21.40 07102020 141001.59 0.00
48.3404042 4.4786421 21.08 07102020 141001.94 0.00
48.3404042 4.4786421 21.42 07102020 141001.94 0.00
48.3404037 4.4786497 21.10 07102020 141002.28 0.00
48.3404037 4.4786497 21.38 07102020 141002.28 0.00
48.3404028 4.4786569 21.17 07102020 141002.62 0.00
48.3404028 4.4786569 21.72 07102020 141002.62 0.00
48.3404018 4.4786632 21.04 07102020 141002.96 0.00
48.3404018 4.4786632 21.56 07102020 141002.96 0.00
48.3404005 4.4786698 21.08 07102020 141003.30 0.00
48.3404005 4.4786698 21.40 07102020 141003.30 0.00
48.3403995 4.4786767 21.06 07102020 141003.64 0.00
48.3403995 4.4786767 21.37 07102020 141003.64 0.00
48.3403991 4.4786830 21.16 07102020 141003.98 0.00
48.3403991 4.4786830 21.52 07102020 141003.98 0.00
48.3403987 4.4786886 21.14 07102020 141004.32 0.00
48.3403987 4.4786886 21.59 07102020 141004.32 0.00
48.3403980 4.4786946 21.17 07102020 141004.66 0.00
48.3403980 4.4786946 21.51 07102020 141004.66 0.00
48.3403971 4.4787018 21.16 07102020 141005.01 0.00
48.3403971 4.4787018 21.39 07102020 141005.01 0.00
48.3403964 4.4787094 21.19 07102020 141005.35 0.00
48.3403964 4.4787094 21.56 07102020 141005.35 0.00
48.3403958 4.4787165 21.21 07102020 141005.69 0.00
48.3403958 4.4787165 21.50 07102020 141005.69 0.00
48.3403950 4.4787230 21.23 07102020 141006.03 0.00
48.3403950 4.4787230 21.42 07102020 141006.03 0.00
48.3403939 4.4787294 21.25 07102020 141006.37 0.00
48.3403939 4.4787294 21.54 07102020 141006.37 0.00
48.3403925 4.4787357 21.26 07102020 141006.71 0.00
48.3403925 4.4787357 21.51 07102020 141006.71 0.00
48.3403910 4.4787417 21.24 07102020 141007.05 0.00
48.3403910 4.4787417 21.50 07102020 141007.05 0.00
48.3403892 4.4787475 21.22 07102020 141007.39 0.00
48.3403892 4.4787475 21.69 07102020 141007.39 0.00
48.3403872 4.4787531 21.21 07102020 141007.73 0.00
48.3403872 4.4787531 21.56 07102020 141007.73 0.00
48.3403853 4.4787590 21.17 07102020 141008.07 0.00
48.3403853 4.4787590 21.65 07102020 141008.07 0.00
48.3403840 4.4787656 21.16 07102020 141008.42 0.00
48.3403840 4.4787656 21.50 07102020 141008.42 0.00
48.3403836 4.4787723 21.13 07102020 141008.76 0.00
48.3403836 4.4787723 21.51 07102020 141008.76 0.00
48.3403833 4.4787790 21.11 07102020 141009.10 0.00
48.3403833 4.4787790 21.49 07102020 141009.10 0.00
48.3403824 4.4787862 21.13 07102020 141009.44 0.00
48.3403824 4.4787862 21.43 07102020 141009.44 0.00
48.3403810 4.4787929 21.09 07102020 141009.78 0.00
48.3403810 4.4787929 21.39 07102020 141009.78 0.00
48.3403795 4.4787985 21.04 07102020 141010.12 0.00
48.3403795 4.4787985 21.40 07102020 141010.12 0.00
48.3403785 4.4788032 21.04 07102020 141010.46 0.00
48.3403785 4.4788032 21.31 07102020 141010.46 0.00
48.3403780 4.4788089 21.09 07102020 141010.80 0.00
48.3403780 4.4788089 21.42 07102020 141010.80 0.00
48.3403779 4.4788166 20.98 07102020 141011.15 0.00
48.3403779 4.4788166 21.21 07102020 141011.15 0.00
48.3403778 4.4788247 21.03 07102020 141011.49 0.00
48.3403778 4.4788247 21.44 07102020 141011.49 0.00
48.3403778 4.4788319 21.05 07102020 141011.83 0.00
48.3403778 4.4788319 21.28 07102020 141011.83 0.00
48.3403778 4.4788374 21.08 07102020 141012.17 0.00
48.3403778 4.4788374 21.22 07102020 141012.17 0.00
48.3403770 4.4788428 21.05 07102020 141012.51 0.00
48.3403770 4.4788428 21.28 07102020 141012.51 0.00
48.3403755 4.4788493 20.99 07102020 141012.85 0.00
48.3403755 4.4788493 21.33 07102020 141012.85 0.00
48.3403741 4.4788561 21.00 07102020 141013.19 0.00
48.3403741 4.4788561 21.32 07102020 141013.19 0.00
48.3403733 4.4788622 21.01 07102020 141013.53 0.00
48.3403733 4.4788622 21.32 07102020 141013.53 0.00
48.3403732 4.4788679 21.00 07102020 141013.88 0.00
48.3403732 4.4788679 21.40 07102020 141013.88 0.00
48.3403735 4.4788744 21.00 07102020 141014.22 0.00
48.3403735 4.4788744 21.29 07102020 141014.22 0.00
48.3403740 4.4788818 20.99 07102020 141014.56 0.00
48.3403740 4.4788818 21.49 07102020 141014.56 0.00
48.3403742 4.4788891 21.01 07102020 141014.90 0.00
48.3403742 4.4788891 21.39 07102020 141014.90 0.00
48.3403739 4.4788956 20.99 07102020 141015.24 0.00
48.3403739 4.4788956 21.51 07102020 141015.24 0.00
48.3403728 4.4789014 20.99 07102020 141015.58 0.00
48.3403728 4.4789014 21.37 07102020 141015.58 0.00
48.3403715 4.4789076 20.97 07102020 141015.92 0.00
48.3403715 4.4789076 21.21 07102020 141015.92 0.00
48.3403712 4.4789139 20.91 07102020 141016.26 0.00
48.3403712 4.4789139 21.42 07102020 141016.26 0.00
48.3403720 4.4789201 20.92 07102020 141016.61 0.00
48.3403720 4.4789201 21.24 07102020 141016.61 0.00
48.3403722 4.4789269 20.94 07102020 141016.95 0.00
48.3403722 4.4789269 21.26 07102020 141016.95 0.00
48.3403721 4.4789342 20.97 07102020 141017.29 0.00
48.3403721 4.4789342 21.43 07102020 141017.29 0.00
48.3403717 4.4789407 20.99 07102020 141017.63 0.00
48.3403717 4.4789407 21.40 07102020 141017.63 0.00
48.3403712 4.4789463 20.98 07102020 141017.97 0.00
48.3403712 4.4789463 21.59 07102020 141017.97 0.00
48.3403701 4.4789521 21.01 07102020 141018.31 0.00
48.3403701 4.4789521 22.57 07102020 141018.31 0.00
48.3403689 4.4789585 21.00 07102020 141018.65 0.00
48.3403689 4.4789585 21.38 07102020 141018.65 0.00
48.3403679 4.4789648 21.00 07102020 141019.00 0.00
48.3403679 4.4789648 21.36 07102020 141019.00 0.00
48.3403673 4.4789708 20.99 07102020 141019.34 0.00
48.3403673 4.4789708 21.41 07102020 141019.34 0.00
48.3403669 4.4789772 21.01 07102020 141019.68 0.00
48.3403669 4.4789772 21.30 07102020 141019.68 0.00
48.3403666 4.4789845 21.04 07102020 141020.02 0.00
48.3403666 4.4789845 21.33 07102020 141020.02 0.00
48.3403660 4.4789915 21.08 07102020 141020.37 0.00
48.3403660 4.4789915 21.31 07102020 141020.37 0.00
48.3403652 4.4789980 21.03 07102020 141020.71 0.00
48.3403652 4.4789980 21.30 07102020 141020.71 0.00
48.3403642 4.4790042 21.03 07102020 141021.06 0.00
48.3403642 4.4790042 21.30 07102020 141021.06 0.00
48.3403635 4.4790105 20.97 07102020 141021.40 0.00
48.3403635 4.4790105 21.28 07102020 141021.40 0.00
48.3403628 4.4790169 20.99 07102020 141021.74 0.00
48.3403628 4.4790169 21.26 07102020 141021.74 0.00
48.3403623 4.4790234 20.95 07102020 141022.08 0.00
48.3403623 4.4790234 21.45 07102020 141022.08 0.00
48.3403617 4.4790305 20.94 07102020 141022.42 0.00
48.3403617 4.4790305 21.22 07102020 141022.42 0.00
48.3403608 4.4790374 20.95 07102020 141022.77 0.00
48.3403608 4.4790374 21.20 07102020 141022.77 0.00
48.3403598 4.4790439 20.96 07102020 141023.11 0.00
48.3403598 4.4790439 21.40 07102020 141023.11 0.00
48.3403588 4.4790505 20.94 07102020 141023.45 0.00
48.3403588 4.4790505 21.37 07102020 141023.45 0.00
48.3403577 4.4790568 20.94 07102020 141023.79 0.00
48.3403577 4.4790568 21.35 07102020 141023.79 0.00
48.3403566 4.4790631 20.95 07102020 141024.13 0.00
48.3403566 4.4790631 21.31 07102020 141024.13 0.00
48.3403559 4.4790692 21.00 07102020 141024.47 0.00
48.3403559 4.4790692 21.29 07102020 141024.47 0.00
48.3403552 4.4790750 21.00 07102020 141024.81 0.00
48.3403552 4.4790750 21.38 07102020 141024.81 0.00
48.3403544 4.4790820 20.99 07102020 141025.15 0.00
48.3403544 4.4790820 21.31 07102020 141025.15 0.00
48.3403537 4.4790899 20.99 07102020 141025.49 0.00
48.3403537 4.4790899 21.37 07102020 141025.49 0.00
48.3403531 4.4790973 21.03 07102020 141025.83 0.00
48.3403531 4.4790973 21.31 07102020 141025.83 0.00
48.3403527 4.4791036 21.05 07102020 141026.18 0.00
48.3403527 4.4791036 21.44 07102020 141026.18 0.00
48.3403521 4.4791091 21.04 07102020 141026.52 0.00
48.3403521 4.4791091 21.43 07102020 141026.52 0.00
48.3403513 4.4791150 21.06 07102020 141026.86 0.00
48.3403513 4.4791150 21.49 07102020 141026.86 0.00
48.3403507 4.4791222 21.07 07102020 141027.20 0.00
48.3403507 4.4791222 21.34 07102020 141027.20 0.00
48.3403503 4.4791301 21.10 07102020 141027.54 0.00
48.3403503 4.4791301 21.53 07102020 141027.54 0.00
48.3403503 4.4791376 21.10 07102020 141027.88 0.00
48.3403503 4.4791376 21.48 07102020 141027.88 0.00
48.3403505 4.4791446 21.11 07102020 141028.22 0.00
48.3403505 4.4791446 21.58 07102020 141028.22 0.00
48.3403507 4.4791514 21.14 07102020 141028.56 0.00
48.3403507 4.4791514 21.54 07102020 141028.56 0.00
48.3403500 4.4791581 21.12 07102020 141028.91 0.00
48.3403500 4.4791581 21.59 07102020 141028.91 0.00
48.3403489 4.4791651 21.12 07102020 141029.25 0.00
48.3403489 4.4791651 21.48 07102020 141029.25 0.00
48.3403477 4.4791720 21.11 07102020 141029.59 0.00
48.3403477 4.4791720 21.52 07102020 141029.59 0.00
48.3403471 4.4791787 21.11 07102020 141029.93 0.00
48.3403471 4.4791787 21.51 07102020 141029.93 0.00
48.3403469 4.4791855 21.14 07102020 141030.27 0.00
48.3403469 4.4791855 21.50 07102020 141030.27 0.00
48.3403466 4.4791930 21.12 07102020 141030.61 0.00
48.3403466 4.4791930 21.46 07102020 141030.61 0.00
48.3403466 4.4792003 21.12 07102020 141030.95 0.00
48.3403466 4.4792003 21.40 07102020 141030.95 0.00
48.3403468 4.4792070 21.13 07102020 141031.29 0.00
48.3403468 4.4792070 21.37 07102020 141031.29 0.00
48.3403467 4.4792133 21.11 07102020 141031.63 0.00
48.3403467 4.4792133 21.40 07102020 141031.63 0.00
48.3403460 4.4792199 21.10 07102020 141031.97 0.00
48.3403460 4.4792199 21.48 07102020 141031.97 0.00
48.3403451 4.4792271 21.09 07102020 141032.32 0.00
48.3403451 4.4792271 21.35 07102020 141032.32 0.00
48.3403442 4.4792348 21.12 07102020 141032.66 0.00
48.3403442 4.4792348 21.53 07102020 141032.66 0.00
48.3403439 4.4792421 21.08 07102020 141033.00 0.00
48.3403439 4.4792421 21.45 07102020 141033.00 0.00
48.3403439 4.4792485 21.10 07102020 141033.34 0.00
48.3403439 4.4792485 22.54 07102020 141033.34 0.00
48.3403434 4.4792546 21.14 07102020 141033.68 0.00
48.3403434 4.4792546 21.55 07102020 141033.68 0.00
48.3403421 4.4792611 21.13 07102020 141034.02 0.00
48.3403421 4.4792611 21.39 07102020 141034.02 0.00
48.3403402 4.4792681 21.12 07102020 141034.36 0.00
48.3403402 4.4792681 21.59 07102020 141034.36 0.00
48.3403387 4.4792746 21.16 07102020 141034.70 0.00
48.3403387 4.4792746 21.57 07102020 141034.70 0.00
48.3403381 4.4792802 21.14 07102020 141035.05 0.00
48.3403381 4.4792802 21.59 07102020 141035.05 0.00
48.3403375 4.4792865 21.12 07102020 141035.39 0.00
48.3403375 4.4792865 21.44 07102020 141035.39 0.00
48.3403366 4.4792937 21.17 07102020 141035.73 0.00
48.3403366 4.4792937 21.43 07102020 141035.73 0.00
48.3403356 4.4793003 21.16 07102020 141036.07 0.00
48.3403356 4.4793003 21.40 07102020 141036.07 0.00
48.3403344 4.4793059 21.16 07102020 141036.41 0.00
48.3403344 4.4793059 21.42 07102020 141036.41 0.00
48.3403330 4.4793115 21.14 07102020 141036.75 0.00
48.3403330 4.4793115 21.52 07102020 141036.75 0.00
48.3403319 4.4793180 21.13 07102020 141037.09 0.00
48.3403319 4.4793180 21.39 07102020 141037.09 0.00
48.3403308 4.4793254 21.11 07102020 141037.43 0.00
48.3403308 4.4793254 21.41 07102020 141037.43 0.00
48.3403297 4.4793327 21.07 07102020 141037.77 0.00
48.3403297 4.4793327 21.34 07102020 141037.77 0.00
48.3403291 4.4793394 21.08 07102020 141038.11 0.00
48.3403291 4.4793394 21.41 07102020 141038.11 0.00
48.3403287 4.4793451 21.07 07102020 141038.46 0.00
48.3403287 4.4793451 21.54 07102020 141038.46 0.00
48.3403278 4.4793502 21.05 07102020 141038.80 0.00
48.3403278 4.4793502 21.42 07102020 141038.80 0.00
48.3403265 4.4793566 21.02 07102020 141039.14 0.00
48.3403265 4.4793566 21.31 07102020 141039.14 0.00
48.3403252 4.4793640 21.01 07102020 141039.48 0.00
48.3403252 4.4793640 21.49 07102020 141039.48 0.00
48.3403245 4.4793711 21.04 07102020 141039.82 0.00
48.3403245 4.4793711 21.40 07102020 141039.82 0.00
48.3403240 4.4793769 21.02 07102020 141040.16 0.00
48.3403240 4.4793769 21.31 07102020 141040.16 0.00
48.3403234 4.4793824 21.06 07102020 141040.50 0.00
48.3403234 4.4793824 21.48 07102020 141040.50 0.00
48.3403223 4.4793882 21.04 07102020 141040.84 0.00
48.3403223 4.4793882 21.36 07102020 141040.84 0.00
48.3403207 4.4793949 21.03 07102020 141041.18 0.00
48.3403207 4.4793949 21.46 07102020 141041.18 0.00
48.3403192 4.4794022 21.03 07102020 141041.52 0.00
48.3403192 4.4794022 21.29 07102020 141041.52 0.00
48.3403184 4.4794091 21.05 07102020 141041.87 0.00
48.3403184 4.4794091 21.42 07102020 141041.87 0.00
48.3403184 4.4794151 21.10 07102020 141042.21 0.00
48.3403184 4.4794151 21.39 07102020 141042.21 0.00
48.3403183 4.4794208 21.08 07102020 141042.55 0.00
48.3403183 4.4794208 21.40 07102020 141042.55 0.00
48.3403179 4.4794274 21.06 07102020 141042.89 0.00
48.3403179 4.4794274 21.46 07102020 141042.89 0.00
48.3403176 4.4794346 21.10 07102020 141043.23 0.00
48.3403176 4.4794346 21.31 07102020 141043.23 0.00
48.3403174 4.4794419 21.08 07102020 141043.57 0.00
48.3403174 4.4794419 21.50 07102020 141043.57 0.00
48.3403174 4.4794484 21.08 07102020 141043.91 0.00
48.3403174 4.4794484 21.31 07102020 141043.91 0.00
48.3403176 4.4794547 21.06 07102020 141044.25 0.00
48.3403176 4.4794547 21.31 07102020 141044.25 0.00
48.3403172 4.4794619 21.08 07102020 141044.59 0.00
48.3403172 4.4794619 21.28 07102020 141044.59 0.00
48.3403166 4.4794692 21.02 07102020 141044.94 0.00
48.3403166 4.4794692 21.44 07102020 141044.94 0.00
48.3403160 4.4794762 21.00 07102020 141045.28 0.00
48.3403160 4.4794762 21.40 07102020 141045.28 0.00
48.3403157 4.4794826 20.98 07102020 141045.62 0.00
48.3403157 4.4794826 21.42 07102020 141045.62 0.00
48.3403154 4.4794894 21.00 07102020 141045.96 0.00
48.3403154 4.4794894 21.24 07102020 141045.96 0.00
48.3403149 4.4794971 20.99 07102020 141046.30 0.00
48.3403149 4.4794971 21.40 07102020 141046.30 0.00
48.3403143 4.4795047 21.03 07102020 141046.64 0.00
48.3403143 4.4795047 21.54 07102020 141046.64 0.00
48.3403139 4.4795110 21.04 07102020 141046.98 0.00
48.3403139 4.4795110 21.33 07102020 141046.98 0.00
48.3403134 4.4795169 21.00 07102020 141047.32 0.00
48.3403134 4.4795169 21.41 07102020 141047.32 0.00
48.3403128 4.4795240 20.99 07102020 141047.66 0.00
48.3403128 4.4795240 21.30 07102020 141047.66 0.00
48.3403126 4.4795318 21.00 07102020 141048.01 0.00
48.3403126 4.4795318 21.30 07102020 141048.01 0.00
48.3403127 4.4795392 20.98 07102020 141048.35 0.00
48.3403127 4.4795392 21.43 07102020 141048.35 0.00
48.3403124 4.4795456 20.99 07102020 141048.69 0.00
48.3403124 4.4795456 21.43 07102020 141048.69 0.00
48.3403119 4.4795517 21.01 07102020 141049.03 0.00
48.3403119 4.4795517 21.28 07102020 141049.03 0.00
48.3403111 4.4795585 20.98 07102020 141049.37 0.00
48.3403111 4.4795585 21.54 07102020 141049.37 0.00
48.3403103 4.4795662 21.00 07102020 141049.71 0.00
48.3403103 4.4795662 21.35 07102020 141049.71 0.00
48.3403097 4.4795738 20.98 07102020 141050.05 0.00
48.3403097 4.4795738 21.44 07102020 141050.05 0.00
48.3403098 4.4795807 20.99 07102020 141050.40 0.00
48.3403098 4.4795807 21.52 07102020 141050.40 0.00
48.3403096 4.4795871 20.96 07102020 141050.74 0.00
48.3403096 4.4795871 21.31 07102020 141050.74 0.00
48.3403088 4.4795937 21.01 07102020 141051.08 0.00
48.3403088 4.4795937 21.36 07102020 141051.08 0.00
48.3403074 4.4796005 20.98 07102020 141051.42 0.00
48.3403074 4.4796005 21.40 07102020 141051.42 0.00
48.3403057 4.4796073 20.96 07102020 141051.76 0.00
48.3403057 4.4796073 21.40 07102020 141051.76 0.00
48.3403040 4.4796140 20.98 07102020 141052.10 0.00
48.3403040 4.4796140 21.40 07102020 141052.10 0.00
48.3403022 4.4796207 20.98 07102020 141052.44 0.00
48.3403022 4.4796207 21.39 07102020 141052.44 0.00
48.3403007 4.4796273 20.94 07102020 141052.78 0.00
48.3403007 4.4796273 21.39 07102020 141052.78 0.00
48.3402998 4.4796337 20.94 07102020 141053.13 0.00
48.3402998 4.4796337 21.23 07102020 141053.13 0.00
48.3402988 4.4796403 21.03 07102020 141053.47 0.00
48.3402988 4.4796403 21.29 07102020 141053.47 0.00
48.3402976 4.4796472 20.94 07102020 141053.81 0.00
48.3402976 4.4796472 21.48 07102020 141053.81 0.00
48.3402965 4.4796538 20.99 07102020 141054.15 0.00
48.3402965 4.4796538 21.23 07102020 141054.15 0.00
48.3402953 4.4796593 20.93 07102020 141054.49 0.00
48.3402953 4.4796593 21.27 07102020 141054.49 0.00
48.3402940 4.4796649 20.90 07102020 141054.83 0.00
48.3402940 4.4796649 21.15 07102020 141054.83 0.00
48.3402927 4.4796718 20.93 07102020 141055.17 0.00
48.3402927 4.4796718 21.38 07102020 141055.17 0.00
48.3402916 4.4796796 20.93 07102020 141055.52 0.00
48.3402916 4.4796796 21.32 07102020 141055.52 0.00
48.3402906 4.4796867 20.94 07102020 141055.86 0.00
48.3402906 4.4796867 21.22 07102020 141055.86 0.00
48.3402893 4.4796928 20.94 07102020 141056.20 0.00
48.3402893 4.4796928 21.19 07102020 141056.20 0.00
48.3402877 4.4796990 20.93 07102020 141056.55 0.00
48.3402877 4.4796990 21.19 07102020 141056.55 0.00
48.3402863 4.4797052 20.95 07102020 141056.89 0.00
48.3402863 4.4797052 21.20 07102020 141056.89 0.00
48.3402847 4.4797115 20.95 07102020 141057.23 0.00
48.3402847 4.4797115 21.20 07102020 141057.23 0.00
48.3402831 4.4797185 20.94 07102020 141057.57 0.00
48.3402831 4.4797185 21.37 07102020 141057.57 0.00
48.3402819 4.4797259 20.98 07102020 141057.91 0.00
48.3402819 4.4797259 21.26 07102020 141057.91 0.00
48.3402809 4.4797324 21.02 07102020 141058.26 0.00
48.3402809 4.4797324 21.38 07102020 141058.26 0.00
48.3402796 4.4797379 20.96 07102020 141058.60 0.00
48.3402796 4.4797379 21.48 07102020 141058.60 0.00
48.3402777 4.4797439 20.99 07102020 141058.94 0.00
48.3402777 4.4797439 21.42 07102020 141058.94 0.00
48.3402760 4.4797506 20.99 07102020 141059.28 0.00
48.3402760 4.4797506 21.51 07102020 141059.28 0.00
48.3402746 4.4797579 21.00 07102020 141059.62 0.00
48.3402746 4.4797579 21.28 07102020 141059.62 0.00
48.3402731 4.4797645 21.03 07102020 141059.96 0.00
48.3402731 4.4797645 21.41 07102020 141059.96 0.00
48.3402719 4.4797704 21.03 07102020 141100.30 0.00
48.3402719 4.4797704 21.40 07102020 141100.30 0.00
48.3402708 4.4797761 21.02 07102020 141100.65 0.00
48.3402708 4.4797761 21.28 07102020 141100.65 0.00
48.3402696 4.4797826 21.00 07102020 141100.99 0.00
48.3402696 4.4797826 21.32 07102020 141100.99 0.00
48.3402683 4.4797896 21.05 07102020 141101.33 0.00
48.3402683 4.4797896 21.44 07102020 141101.33 0.00
48.3402669 4.4797961 21.06 07102020 141101.67 0.00
48.3402669 4.4797961 21.32 07102020 141101.67 0.00
48.3402656 4.4798012 21.07 07102020 141102.01 0.00
48.3402656 4.4798012 21.48 07102020 141102.01 0.00
48.3402641 4.4798062 21.04 07102020 141102.35 0.00
48.3402641 4.4798062 21.39 07102020 141102.35 0.00
48.3402621 4.4798125 21.05 07102020 141102.69 0.00
48.3402621 4.4798125 21.29 07102020 141102.69 0.00
48.3402601 4.4798200 21.06 07102020 141103.03 0.00
48.3402601 4.4798200 21.47 07102020 141103.03 0.00
48.3402581 4.4798272 21.11 07102020 141103.37 0.00
48.3402581 4.4798272 21.34 07102020 141103.37 0.00
48.3402563 4.4798329 21.10 07102020 141103.71 0.00
48.3402563 4.4798329 21.46 07102020 141103.71 0.00
48.3402545 4.4798377 21.11 07102020 141104.06 0.00
48.3402545 4.4798377 21.31 07102020 141104.06 0.00
48.3402521 4.4798433 21.04 07102020 141104.40 0.00
48.3402521 4.4798433 21.41 07102020 141104.40 0.00
48.3402496 4.4798499 21.03 07102020 141104.74 0.00
48.3402496 4.4798499 21.48 07102020 141104.74 0.00
48.3402476 4.4798567 21.04 07102020 141105.08 0.00
48.3402476 4.4798567 21.61 07102020 141105.08 0.00
48.3402462 4.4798626 21.05 07102020 141105.42 0.00
48.3402462 4.4798626 21.34 07102020 141105.42 0.00
48.3402450 4.4798674 21.02 07102020 141105.76 0.00
48.3402450 4.4798674 21.33 07102020 141105.76 0.00
48.3402435 4.4798725 21.01 07102020 141106.10 0.00
48.3402435 4.4798725 21.41 07102020 141106.10 0.00
48.3402412 4.4798787 21.00 07102020 141106.44 0.00
48.3402412 4.4798787 21.33 07102020 141106.44 0.00
48.3402388 4.4798855 20.98 07102020 141106.78 0.00
48.3402388 4.4798855 21.38 07102020 141106.78 0.00
48.3402367 4.4798919 20.98 07102020 141107.13 0.00
48.3402367 4.4798919 21.30 07102020 141107.13 0.00
48.3402352 4.4798971 21.01 07102020 141107.47 0.00
48.3402352 4.4798971 21.35 07102020 141107.47 0.00
48.3402341 4.4799011 20.95 07102020 141107.81 0.00
48.3402341 4.4799011 21.36 07102020 141107.81 0.00
48.3402324 4.4799057 20.93 07102020 141108.15 0.00
48.3402324 4.4799057 21.84 07102020 141108.15 0.00
48.3402303 4.4799122 20.99 07102020 141108.49 0.00
48.3402303 4.4799122 21.24 07102020 141108.49 0.00
48.3402286 4.4799186 21.00 07102020 141108.83 0.00
48.3402286 4.4799186 21.30 07102020 141108.83 0.00
48.3402277 4.4799236 21.02 07102020 141109.17 0.00
48.3402277 4.4799236 21.38 07102020 141109.17 0.00
48.3402266 4.4799274 21.01 07102020 141109.51 0.00
48.3402266 4.4799274 21.28 07102020 141109.51 0.00
48.3402246 4.4799320 20.97 07102020 141109.85 0.00
48.3402246 4.4799320 21.21 07102020 141109.85 0.00
48.3402224 4.4799379 20.96 07102020 141110.20 0.00
48.3402224 4.4799379 21.26 07102020 141110.20 0.00
48.3402203 4.4799445 21.01 07102020 141110.54 0.00
48.3402203 4.4799445 21.40 07102020 141110.54 0.00
48.3402190 4.4799504 21.04 07102020 141110.88 0.00
48.3402190 4.4799504 21.33 07102020 141110.88 0.00
48.3402180 4.4799555 21.03 07102020 141111.22 0.00
48.3402180 4.4799555 21.33 07102020 141111.22 0.00
48.3402167 4.4799608 21.05 07102020 141111.56 0.00
48.3402167 4.4799608 21.40 07102020 141111.56 0.00
48.3402151 4.4799668 21.03 07102020 141111.90 0.00
48.3402151 4.4799668 21.46 07102020 141111.90 0.00
48.3402133 4.4799732 21.01 07102020 141112.24 0.00
48.3402133 4.4799732 21.46 07102020 141112.24 0.00
48.3402120 4.4799792 21.01 07102020 141112.58 0.00
48.3402120 4.4799792 21.61 07102020 141112.58 0.00
48.3402115 4.4799847 20.97 07102020 141112.92 0.00
48.3402115 4.4799847 21.25 07102020 141112.92 0.00
48.3402111 4.4799909 21.04 07102020 141113.27 0.00
48.3402111 4.4799909 21.49 07102020 141113.27 0.00
48.3402098 4.4799982 21.00 07102020 141113.61 0.00
48.3402098 4.4799982 21.28 07102020 141113.61 0.00
48.3402082 4.4800051 21.01 07102020 141113.95 0.00
48.3402082 4.4800051 21.37 07102020 141113.95 0.00
48.3402065 4.4800104 21.01 07102020 141114.29 0.00
48.3402065 4.4800104 21.32 07102020 141114.29 0.00
48.3402046 4.4800150 20.98 07102020 141114.63 0.00
48.3402046 4.4800150 21.22 07102020 141114.63 0.00
48.3402027 4.4800211 20.90 07102020 141114.97 0.00
48.3402027 4.4800211 21.14 07102020 141114.97 0.00
48.3402015 4.4800283 20.92 07102020 141115.31 0.00
48.3402015 4.4800283 21.29 07102020 141115.31 0.00
48.3402010 4.4800352 20.93 07102020 141115.65 0.00
48.3402010 4.4800352 21.32 07102020 141115.65 0.00
48.3402003 4.4800404 20.96 07102020 141115.99 0.00
48.3402003 4.4800404 21.22 07102020 141115.99 0.00
48.3401984 4.4800453 20.94 07102020 141116.34 0.00
48.3401984 4.4800453 21.25 07102020 141116.34 0.00
48.3401957 4.4800505 20.85 07102020 141116.68 0.00
48.3401957 4.4800505 21.36 07102020 141116.68 0.00
48.3401937 4.4800562 20.85 07102020 141117.02 0.00
48.3401937 4.4800562 21.26 07102020 141117.02 0.00
48.3401925 4.4800621 20.88 07102020 141117.36 0.00
48.3401925 4.4800621 21.30 07102020 141117.36 0.00
48.3401913 4.4800685 20.86 07102020 141117.70 0.00
48.3401913 4.4800685 21.24 07102020 141117.70 0.00
48.3401901 4.4800745 20.88 07102020 141118.04 0.00
48.3401901 4.4800745 21.17 07102020 141118.04 0.00
48.3401889 4.4800800 20.91 07102020 141118.38 0.00
48.3401889 4.4800800 21.17 07102020 141118.38 0.00
48.3401872 4.4800849 20.89 07102020 141118.72 0.00
48.3401872 4.4800849 21.28 07102020 141118.72 0.00
48.3401849 4.4800903 20.81 07102020 141119.06 0.00
48.3401849 4.4800903 21.14 07102020 141119.06 0.00
48.3401829 4.4800963 20.81 07102020 141119.41 0.00
48.3401829 4.4800963 21.07 07102020 141119.41 0.00
48.3401819 4.4801018 20.86 07102020 141119.75 0.00
48.3401819 4.4801018 21.18 07102020 141119.75 0.00
48.3401812 4.4801067 20.92 07102020 141120.09 0.00
48.3401812 4.4801067 21.37 07102020 141120.09 0.00
48.3401797 4.4801121 20.90 07102020 141120.43 0.00
48.3401797 4.4801121 21.18 07102020 141120.43 0.00
48.3401776 4.4801178 20.88 07102020 141120.77 0.00
48.3401776 4.4801178 21.20 07102020 141120.77 0.00
48.3401754 4.4801230 20.84 07102020 141121.11 0.00
48.3401754 4.4801230 21.20 07102020 141121.11 0.00
48.3401735 4.4801278 20.82 07102020 141121.45 0.00
48.3401735 4.4801278 21.43 07102020 141121.45 0.00
48.3401718 4.4801328 20.86 07102020 141121.79 0.00
48.3401718 4.4801328 21.24 07102020 141121.79 0.00
48.3401701 4.4801384 20.91 07102020 141122.13 0.00
48.3401701 4.4801384 21.19 07102020 141122.13 0.00
48.3401682 4.4801440 20.93 07102020 141122.48 0.00
48.3401682 4.4801440 21.54 07102020 141122.48 0.00
48.3401663 4.4801492 20.88 07102020 141122.82 0.00
48.3401663 4.4801492 21.53 07102020 141122.82 0.00
48.3401645 4.4801541 20.92 07102020 141123.16 0.00
48.3401645 4.4801541 21.15 07102020 141123.16 0.00
48.3401627 4.4801588 20.88 07102020 141123.50 0.00
48.3401627 4.4801588 21.18 07102020 141123.50 0.00
48.3401609 4.4801639 20.91 07102020 141123.84 0.00
48.3401609 4.4801639 21.21 07102020 141123.84 0.00
48.3401593 4.4801697 20.89 07102020 141124.18 0.00
48.3401593 4.4801697 21.20 07102020 141124.18 0.00
48.3401583 4.4801753 20.91 07102020 141124.52 0.00
48.3401583 4.4801753 21.41 07102020 141124.52 0.00
48.3401577 4.4801805 20.91 07102020 141124.86 0.00
48.3401577 4.4801805 21.28 07102020 141124.86 0.00
48.3401565 4.4801864 20.93 07102020 141125.20 0.00
48.3401565 4.4801864 21.12 07102020 141125.20 0.00
48.3401549 4.4801927 20.94 07102020 141125.55 0.00
48.3401549 4.4801927 21.25 07102020 141125.55 0.00
48.3401534 4.4801984 20.91 07102020 141125.89 0.00
48.3401534 4.4801984 21.18 07102020 141125.89 0.00
48.3401525 4.4802032 20.89 07102020 141126.23 0.00
48.3401525 4.4802032 21.20 07102020 141126.23 0.00
48.3401517 4.4802085 20.88 07102020 141126.57 0.00
48.3401517 4.4802085 21.24 07102020 141126.57 0.00
48.3401510 4.4802152 20.91 07102020 141126.92 0.00
48.3401510 4.4802152 21.41 07102020 141126.92 0.00
48.3401502 4.4802222 21.02 07102020 141127.26 0.00
48.3401502 4.4802222 21.32 07102020 141127.26 0.00
48.3401493 4.4802281 21.01 07102020 141127.60 0.00
48.3401493 4.4802281 21.42 07102020 141127.60 0.00
48.3401482 4.4802331 21.03 07102020 141127.94 0.00
48.3401482 4.4802331 21.47 07102020 141127.94 0.00
48.3401466 4.4802387 20.99 07102020 141128.28 0.00
48.3401466 4.4802387 21.40 07102020 141128.28 0.00
48.3401449 4.4802452 21.02 07102020 141128.62 0.00
48.3401449 4.4802452 21.31 07102020 141128.62 0.00
48.3401435 4.4802523 21.05 07102020 141128.96 0.00
48.3401435 4.4802523 21.49 07102020 141128.96 0.00
48.3401426 4.4802593 21.09 07102020 141129.30 0.00
48.3401426 4.4802593 21.39 07102020 141129.30 0.00
48.3401424 4.4802652 21.12 07102020 141129.64 0.00
48.3401424 4.4802652 21.48 07102020 141129.64 0.00
48.3401422 4.4802699 21.12 07102020 141129.99 0.00
48.3401422 4.4802699 21.54 07102020 141129.99 0.00
48.3401409 4.4802753 21.09 07102020 141130.33 0.00
48.3401409 4.4802753 21.49 07102020 141130.33 0.00
48.3401393 4.4802819 21.08 07102020 141130.67 0.00
48.3401393 4.4802819 21.54 07102020 141130.67 0.00
48.3401384 4.4802886 21.19 07102020 141131.01 0.00
48.3401384 4.4802886 21.45 07102020 141131.01 0.00
48.3401386 4.4802940 21.13 07102020 141131.35 0.00
48.3401386 4.4802940 21.54 07102020 141131.35 0.00
48.3401389 4.4802981 21.14 07102020 141131.69 0.00
48.3401389 4.4802981 21.38 07102020 141131.69 0.00
48.3401380 4.4803037 21.11 07102020 141132.03 0.00
48.3401380 4.4803037 21.44 07102020 141132.03 0.00
48.3401366 4.4803102 21.13 07102020 141132.38 0.00
48.3401366 4.4803102 21.44 07102020 141132.38 0.00
48.3401353 4.4803163 21.21 07102020 141132.72 0.00
48.3401353 4.4803163 21.54 07102020 141132.72 0.00
48.3401344 4.4803208 21.16 07102020 141133.06 0.00
48.3401344 4.4803208 21.46 07102020 141133.06 0.00
48.3401332 4.4803243 21.17 07102020 141133.40 0.00
48.3401332 4.4803243 21.52 07102020 141133.40 0.00
48.3401319 4.4803292 21.18 07102020 141133.74 0.00
48.3401319 4.4803292 21.60 07102020 141133.74 0.00
48.3401307 4.4803354 21.17 07102020 141134.08 0.00
48.3401307 4.4803354 21.46 07102020 141134.08 0.00
48.3401299 4.4803420 21.18 07102020 141134.42 0.00
48.3401299 4.4803420 21.60 07102020 141134.42 0.00
48.3401296 4.4803474 21.24 07102020 141134.76 0.00
48.3401296 4.4803474 21.54 07102020 141134.76 0.00
48.3401292 4.4803519 21.25 07102020 141135.11 0.00
48.3401292 4.4803519 21.54 07102020 141135.11 0.00
48.3401281 4.4803571 21.23 07102020 141135.45 0.00
48.3401281 4.4803571 21.59 07102020 141135.45 0.00
48.3401266 4.4803632 21.18 07102020 141135.79 0.00
48.3401266 4.4803632 21.69 07102020 141135.79 0.00
48.3401253 4.4803697 21.14 07102020 141136.13 0.00
48.3401253 4.4803697 21.54 07102020 141136.13 0.00
48.3401245 4.4803761 21.21 07102020 141136.47 0.00
48.3401245 4.4803761 21.48 07102020 141136.47 0.00
48.3401244 4.4803819 21.19 07102020 141136.81 0.00
48.3401244 4.4803819 21.58 07102020 141136.81 0.00
48.3401245 4.4803870 21.20 07102020 141137.15 0.00
48.3401245 4.4803870 21.51 07102020 141137.15 0.00
48.3401240 4.4803923 21.20 07102020 141137.49 0.00
48.3401240 4.4803923 21.56 07102020 141137.49 0.00
48.3401229 4.4803987 21.15 07102020 141137.83 0.00
48.3401229 4.4803987 21.62 07102020 141137.83 0.00
48.3401218 4.4804056 21.20 07102020 141138.17 0.00
48.3401218 4.4804056 21.61 07102020 141138.17 0.00
48.3401214 4.4804119 21.22 07102020 141138.52 0.00
48.3401214 4.4804119 21.55 07102020 141138.52 0.00
48.3401214 4.4804173 21.20 07102020 141138.86 0.00
48.3401214 4.4804173 21.55 07102020 141138.86 0.00
48.3401212 4.4804230 21.19 07102020 141139.20 0.00
48.3401212 4.4804230 21.58 07102020 141139.20 0.00
48.3401205 4.4804298 21.21 07102020 141139.54 0.00
48.3401205 4.4804298 21.61 07102020 141139.54 0.00
48.3401196 4.4804370 21.21 07102020 141139.88 0.00
48.3401196 4.4804370 21.62 07102020 141139.88 0.00
48.3401188 4.4804437 21.20 07102020 141140.22 0.00
48.3401188 4.4804437 21.62 07102020 141140.22 0.00
48.3401185 4.4804494 21.19 07102020 141140.56 0.00
48.3401185 4.4804494 21.45 07102020 141140.56 0.00
48.3401178 4.4804557 21.18 07102020 141140.90 0.00
48.3401178 4.4804557 21.47 07102020 141140.90 0.00
48.3401169 4.4804625 21.17 07102020 141141.25 0.00
48.3401169 4.4804625 21.62 07102020 141141.25 0.00
48.3401161 4.4804689 21.19 07102020 141141.59 0.00
48.3401161 4.4804689 21.56 07102020 141141.59 0.00
48.3401158 4.4804748 21.15 07102020 141141.93 0.00
48.3401158 4.4804748 21.55 07102020 141141.93 0.00
48.3401153 4.4804807 21.14 07102020 141142.27 0.00
48.3401153 4.4804807 21.59 07102020 141142.27 0.00
48.3401146 4.4804871 21.14 07102020 141142.61 0.00
48.3401146 4.4804871 21.63 07102020 141142.61 0.00
48.3401137 4.4804938 21.12 07102020 141142.95 0.00
48.3401137 4.4804938 21.47 07102020 141142.95 0.00
48.3401126 4.4805005 21.08 07102020 141143.29 0.00
48.3401126 4.4805005 21.48 07102020 141143.29 0.00
48.3401119 4.4805069 21.08 07102020 141143.63 0.00
48.3401119 4.4805069 21.48 07102020 141143.63 0.00
48.3401116 4.4805132 21.07 07102020 141143.97 0.00
48.3401116 4.4805132 21.47 07102020 141143.97 0.00
48.3401110 4.4805197 21.06 07102020 141144.32 0.00
48.3401110 4.4805197 21.46 07102020 141144.32 0.00
48.3401103 4.4805267 21.09 07102020 141144.66 0.00
48.3401103 4.4805267 21.39 07102020 141144.66 0.00
48.3401100 4.4805334 21.15 07102020 141145.00 0.00
48.3401100 4.4805334 21.47 07102020 141145.00 0.00
48.3401098 4.4805390 21.17 07102020 141145.34 0.00
48.3401098 4.4805390 21.44 07102020 141145.34 0.00
48.3401090 4.4805445 21.09 07102020 141145.68 0.00
48.3401090 4.4805445 21.32 07102020 141145.68 0.00
48.3401079 4.4805509 21.10 07102020 141146.02 0.00
48.3401079 4.4805509 21.53 07102020 141146.02 0.00
48.3401072 4.4805572 21.11 07102020 141146.36 0.00
48.3401072 4.4805572 21.35 07102020 141146.36 0.00
48.3401069 4.4805631 21.10 07102020 141146.70 0.00
48.3401069 4.4805631 21.40 07102020 141146.70 0.00
48.3401062 4.4805690 21.10 07102020 141147.05 0.00
48.3401062 4.4805690 21.50 07102020 141147.05 0.00
48.3401053 4.4805757 21.07 07102020 141147.39 0.00
48.3401053 4.4805757 21.36 07102020 141147.39 0.00
48.3401048 4.4805826 21.08 07102020 141147.73 0.00
48.3401048 4.4805826 21.37 07102020 141147.73 0.00
48.3401047 4.4805889 21.04 07102020 141148.07 0.00
48.3401047 4.4805889 21.37 07102020 141148.07 0.00
48.3401050 4.4805951 21.05 07102020 141148.41 0.00
48.3401050 4.4805951 21.52 07102020 141148.41 0.00
48.3401054 4.4806021 21.07 07102020 141148.75 0.00
48.3401054 4.4806021 21.58 07102020 141148.75 0.00
48.3401053 4.4806090 21.11 07102020 141149.09 0.00
48.3401053 4.4806090 21.44 07102020 141149.09 0.00
48.3401045 4.4806148 21.18 07102020 141149.43 0.00
48.3401045 4.4806148 21.37 07102020 141149.43 0.00
48.3401031 4.4806200 21.14 07102020 141149.77 0.00
48.3401031 4.4806200 21.42 07102020 141149.77 0.00
48.3401012 4.4806256 21.09 07102020 141150.12 0.00
48.3401012 4.4806256 21.50 07102020 141150.12 0.00
48.3400997 4.4806315 21.08 07102020 141150.46 0.00
48.3400997 4.4806315 21.60 07102020 141150.46 0.00
48.3400988 4.4806372 21.09 07102020 141150.80 0.00
48.3400988 4.4806372 21.52 07102020 141150.80 0.00
48.3400980 4.4806436 21.09 07102020 141151.14 0.00
48.3400980 4.4806436 21.36 07102020 141151.14 0.00
48.3400975 4.4806502 21.12 07102020 141151.48 0.00
48.3400975 4.4806502 21.34 07102020 141151.48 0.00
48.3400977 4.4806565 21.07 07102020 141151.82 0.00
48.3400977 4.4806565 21.34 07102020 141151.82 0.00
48.3400978 4.4806626 21.08 07102020 141152.16 0.00
48.3400978 4.4806626 21.53 07102020 141152.16 0.00
48.3400973 4.4806693 21.09 07102020 141152.50 0.00
48.3400973 4.4806693 21.44 07102020 141152.50 0.00
48.3400964 4.4806759 21.19 07102020 141152.84 0.00
48.3400964 4.4806759 21.51 07102020 141152.84 0.00
48.3400951 4.4806816 21.19 07102020 141153.19 0.00
48.3400951 4.4806816 21.58 07102020 141153.19 0.00
48.3400933 4.4806866 21.19 07102020 141153.53 0.00
48.3400933 4.4806866 21.57 07102020 141153.53 0.00
48.3400909 4.4806914 21.14 07102020 141153.87 0.00
48.3400909 4.4806914 21.45 07102020 141153.87 0.00
48.3400887 4.4806966 21.14 07102020 141154.21 0.00
48.3400887 4.4806966 21.54 07102020 141154.21 0.00
48.3400872 4.4807023 21.12 07102020 141154.55 0.00
48.3400872 4.4807023 21.41 07102020 141154.55 0.00
48.3400860 4.4807084 21.14 07102020 141154.91 0.00
48.3400860 4.4807084 21.52 07102020 141154.91 0.00
48.3400852 4.4807151 21.16 07102020 141155.25 0.00
48.3400852 4.4807151 21.58 07102020 141155.25 0.00
48.3400850 4.4807220 21.16 07102020 141155.59 0.00
48.3400850 4.4807220 21.56 07102020 141155.59 0.00
48.3400853 4.4807286 21.20 07102020 141155.93 0.00
48.3400853 4.4807286 21.48 07102020 141155.93 0.00
48.3400848 4.4807346 21.27 07102020 141156.28 0.00
48.3400848 4.4807346 21.40 07102020 141156.28 0.00
48.3400833 4.4807402 21.27 07102020 141156.62 0.00
48.3400833 4.4807402 21.52 07102020 141156.62 0.00
48.3400816 4.4807453 21.15 07102020 141156.96 0.00
48.3400816 4.4807453 21.51 07102020 141156.96 0.00
48.3400800 4.4807508 21.15 07102020 141157.30 0.00
48.3400800 4.4807508 21.54 07102020 141157.30 0.00
48.3400788 4.4807569 21.17 07102020 141157.64 0.00
48.3400788 4.4807569 21.56 07102020 141157.64 0.00
48.3400779 4.4807634 21.16 07102020 141157.98 0.00
48.3400779 4.4807634 21.56 07102020 141157.98 0.00
48.3400771 4.4807702 21.18 07102020 141158.32 0.00
48.3400771 4.4807702 21.57 07102020 141158.32 0.00
48.3400762 4.4807770 21.21 07102020 141158.66 0.00
48.3400762 4.4807770 21.57 07102020 141158.66 0.00
48.3400751 4.4807833 21.21 07102020 141159.01 0.00
48.3400751 4.4807833 21.57 07102020 141159.01 0.00
48.3400737 4.4807892 21.21 07102020 141159.35 0.00
48.3400737 4.4807892 21.58 07102020 141159.35 0.00
48.3400723 4.4807952 21.16 07102020 141159.69 0.00
48.3400723 4.4807952 21.57 07102020 141159.69 0.00
48.3400715 4.4808009 21.15 07102020 141200.03 0.00
48.3400715 4.4808009 21.57 07102020 141200.03 0.00
48.3400710 4.4808064 21.12 07102020 141200.37 0.00
48.3400710 4.4808064 21.83 07102020 141200.37 0.00
48.3400705 4.4808126 21.16 07102020 141200.71 0.00
48.3400705 4.4808126 21.55 07102020 141200.71 0.00
48.3400702 4.4808197 21.10 07102020 141201.06 0.00
48.3400702 4.4808197 21.58 07102020 141201.06 0.00
48.3400700 4.4808275 21.13 07102020 141201.40 0.00
48.3400700 4.4808275 21.69 07102020 141201.40 0.00
48.3400696 4.4808341 21.12 07102020 141201.74 0.00
48.3400696 4.4808341 21.59 07102020 141201.74 0.00
48.3400689 4.4808396 21.18 07102020 141202.08 0.00
48.3400689 4.4808396 21.54 07102020 141202.08 0.00
48.3400674 4.4808457 21.10 07102020 141202.42 0.00
48.3400674 4.4808457 21.50 07102020 141202.42 0.00
48.3400655 4.4808519 21.04 07102020 141202.76 0.00
48.3400655 4.4808519 21.47 07102020 141202.76 0.00
48.3400638 4.4808574 21.03 07102020 141203.10 0.00
48.3400638 4.4808574 21.28 07102020 141203.10 0.00
48.3400627 4.4808625 21.08 07102020 141203.45 0.00
48.3400627 4.4808625 21.35 07102020 141203.45 0.00
48.3400616 4.4808683 21.01 07102020 141203.79 0.00
48.3400616 4.4808683 21.42 07102020 141203.79 0.00
48.3400608 4.4808753 21.08 07102020 141204.13 0.00
48.3400608 4.4808753 21.62 07102020 141204.13 0.00
48.3400602 4.4808824 21.17 07102020 141204.47 0.00
48.3400602 4.4808824 21.59 07102020 141204.47 0.00
